# .PCD v0.7 - Point Cloud Data file format
VERSION 0.7
FIELDS x y z
SIZE 4 4 4
TYPE F F F
COUNT 1 1 1
WIDTH 1526
HEIGHT 1
VIEWPOINT 0 0 0 1 0 0 0
POINTS 1526
DATA ascii
110.59518 -81.126297 756.5213
554.22638 -399.43286 1022.0535
511.2735 25.985249 998.27338
138.91536 45.432926 249.21225
160.54993 117.41111 655.36493
478.09256 2.1040118 1137.8965
561.81281 -337.69864 857.2226
194.45831 -164.53557 951.93683
225.39029 -302.24765 900.60693
155.11131 80.527817 564.74872
64.617935 125.14056 508.71695
199.01584 -311.33359 876.95355
487.37509 20.701065 1001.7881
306.74722 80.405739 660.86536
17.295801 -389.18079 895.25049
565.17908 -347.77832 808.23425
177.38744 81.658737 659.45813
103.54398 -259.67871 865.89752
530.78503 126.8539 763.59595
262.49088 -125.40141 925.88892
122.54881 32.90712 231.23886
444.07913 103.78327 707.88861
21.413248 90.72052 661.90356
139.20169 -334.79831 882.43945
252.80254 88.537064 682.07947
316.79031 79.314133 518.26532
556.04578 117.85691 765.47705
167.55701 -314.17026 852.06042
-77.676697 120.16946 660.21216
542.39459 -11.740607 1027.8793
294.79788 104.41256 634.01111
492.4379 -39.529156 948.07483
106.87794 88.532089 662.47559
129.6049 -380.33884 854.40582
95.981323 -290.67291 955.64923
223.42006 75.640869 617.20624
289.20435 111.16614 688.55786
108.67732 87.24501 661.80048
282.42282 -303.04623 1061.2405
515.00391 -0.76504081 979.74115
35.302006 -378.65869 931.39374
580.23108 70.512398 728.34998
508.85623 -19.964376 1147.8243
118.25453 87.89167 664.89911
172.73492 -278.90479 841.18103
31.901575 -324.38464 1039.6394
333.25974 -119.44033 910.24719
70.533348 49.107788 321.18961
24.584463 103.68095 665.40991
67.141777 125.65797 634.54749
534.16748 99.816483 642.2998
44.607182 102.64004 651.7887
559.84955 -419.51828 1048.361
197.72171 -311.0257 882.31732
357.09485 112.17823 670.63501
128.95775 125.41503 517.39496
165.81163 39.820004 380.45139
537.0014 109.08028 607.86829
13.181787 -393.91153 905.61157
547.57379 -348.95807 1081.5005
15.398281 -388.91324 992.39038
164.75719 -191.63438 889.93433
90.695404 125.8307 547.4704
99.603539 -286.32162 904.76843
515.13519 -39.143181 1165.7891
159.00375 97.958351 639.46997
214.02245 -357.93134 854.15613
569.2804 77.162209 671.78851
556.34302 114.2842 725.18097
485.39169 19.902969 982.67926
559.87341 113.54591 705.43695
43.84639 -369.49106 940.09241
188.25786 104.05532 662.92981
470.53876 90.19442 1087.3074
62.879955 -201.614 1062.6003
230.38188 -257.13406 906.85254
205.23438 -175.72223 986.12744
93.661751 -162.56429 1010.7892
-40.047237 90.634979 739.49176
541.9314 113.83109 756.10455
141.7394 127.94359 475.69147
277.69293 -132.88794 847.29712
197.66379 63.41148 347.09454
207.9687 -173.37703 974.6748
320.5329 -121.62253 912.47412
269.41812 107.09585 665.59308
556.8927 -339.92346 821.95471
206.16972 74.680641 569.87933
522.35474 120.22609 695.2713
99.956413 127.51997 619.13647
206.27103 -349.66129 852.7442
53.545574 -386.82428 901.19501
-73.000694 123.14157 671.12109
157.09488 -182.54457 887.18811
387.34286 120.45727 654.90686
167.54784 -277.29581 837.3717
540.24896 104.97404 631.92743
120.30128 103.53639 436.80356
562.33295 100.16718 654.56158
93.786331 -290.02014 917.48431
492.57117 36.846775 1151.9668
551.16724 65.911545 783.03241
21.449854 -309.41708 1052.7993
95.864815 -322.56979 883.74286
146.36079 -246.52318 858.8905
492.69458 -41.42683 952.41876
103.52942 125.62508 540.9007
148.03789 120.34138 670.2605
547.2832 118.22135 721.77679
529.10059 105.90911 669.52264
112.46342 85.813515 663.27942
175.77029 -344.40906 852.24622
210.1499 71.672256 474.10483
159.08849 -359.47812 836.57532
160.83623 86.876114 665.27771
101.0121 125.63662 518.2597
487.53186 39.499123 1149.9545
482.58868 35.765182 1136.2994
465.10876 64.204094 1042.156
-21.856323 86.541191 647.42474
491.34711 41.794868 1123.4818
320.65656 87.86264 569.22937
197.89578 -111.20411 953.2359
20.101578 -352.51196 1035.0427
553.34381 -366.27234 988.13263
219.00185 68.520988 692.81464
166.41013 -165.38045 955.56433
-44.863316 118.52517 662.6087
253.84698 118.45448 670.51917
213.08241 -351.53818 882.67285
144.85788 -172.45483 917.32715
234.26656 -369.63126 877.27631
518.13745 -21.963118 1172.4043
516.70355 115.32401 705.47961
361.40213 90.653229 676.1344
516.56622 102.66643 622.42639
569.92169 73.103676 703.06476
583.03528 -359.21786 1035.2738
182.09348 118.62276 669.74054
96.686623 126.08133 538.49847
101.7895 -302.13733 881.62799
92.391922 -288.43915 907.50403
375.08572 145.57518 617.00183
455.32471 115.35313 995.16479
389.9328 91.146988 656.61932
108.25835 -161.01654 1003.056
200.36238 117.40083 657.46838
83.939507 127.45654 539.29785
41.974636 126.47043 547.97815
529.64069 108.15269 672.20929
-35.366222 114.90958 658.7334
58.832458 -250.41415 1066.9673
495.93591 -14.619662 1007.0799
-0.18377103 129.38594 566.62476
520.83301 119.30817 584.80646
184.98499 26.142254 164.76729
414.19382 98.764946 703.60175
513.84998 136.81503 765.12701
53.401337 122.79919 596.29529
349.50296 94.65847 681.34204
116.09018 -341.21768 867.05304
126.04813 85.997475 652.2417
176.58372 -344.86441 856.97113
535.5752 101.96696 675.25287
447.60489 116.23972 653.63062
204.39061 87.286484 657.66882
526.88092 118.32505 723.80457
97.990997 21.788036 161.11331
555.15985 116.28992 775.6615
166.34535 -165.57494 955.82837
537.84521 86.461388 767.20166
62.480999 50.168217 343.56403
182.56616 118.12419 674.00647
553.03851 -225.31201 1041.8602
419.96106 93.565681 678.08295
564.82098 -329.86993 771.15649
152.67662 86.807396 659.14679
549.51184 114.45718 770.43915
528.97382 -10.722248 1020.2014
491.76559 64.087646 765.17633
97.875496 -161.8631 993.96021
153.82976 120.43117 671.37653
568.8645 74.222969 695.63043
46.015141 -381.01001 925.12366
213.11938 -352.49789 882.42877
247.33888 -129.42358 929.73743
524.38599 103.7124 737.52008
320.1828 -380.90787 1025.165
520.27539 106.03437 643.2619
314.51157 99.189842 658.40686
563.82428 97.818054 770.40332
588.56549 29.031092 994.33124
167.07123 126.82525 463.58017
174.64772 124.40849 511.99783
338.10907 102.31546 559.12048
180.45871 89.417908 665.31415
353.3421 74.206497 642.95898
407.68106 95.002365 674.48059
298.8064 104.59734 565.39178
42.732037 66.627762 1010.4708
167.65627 -333.37067 848.52423
194.4312 -145.56815 957.99054
69.918007 -265.19965 948.58063
146.56787 112.92533 465.73221
513.96069 53.905987 1255.7754
342.82306 132.03293 564.05884
557.33148 -221.597 1026.0802
121.60909 126.53586 540.64172
258.15732 116.99495 666.91827
531.51868 -33.618393 1123.0043
144.56259 89.654427 660.44672
447.34531 109.95798 749.45447
511.25363 68.465912 971.52386
536.69495 125.0437 774.3772
75.282845 88.25071 666.74811
564.34546 -335.4003 1024.97
151.3815 -165.68669 930.83258
105.22052 117.47341 666.4682
65.886024 125.61422 532.93292
184.57756 126.1229 539.97614
58.15604 53.727825 311.47125
395.7262 118.4818 673.05872
164.99013 -182.28995 896.52045
484.84589 -15.567039 1226.9363
454.77783 97.387451 992.51544
-36.714279 119.12606 659.42944
258.32678 -355.60214 932.25519
72.436966 72.513107 551.19067
548.34601 -356.18533 896.65051
293.04361 -361.71832 921.13739
191.20329 115.68818 506.82742
472.58197 90.350723 1087.2886
269.18683 -385.46063 871.64807
308.927 -115.4313 908.07672
-4.1834154 90.251999 577.17395
98.555313 -147.11278 1013.1576
38.7015 130.54085 424.73212
13.085547 124.40534 626.76141
95.838745 99.042091 397.0481
89.090813 -209.52428 1019.0514
-23.08243 88.851425 654.91632
615.74536 74.593765 716.17377
190.81157 -349.63672 863.25378
496.94232 68.859024 1046.5316
268.03592 67.928009 491.90656
191.89656 90.158569 676.54712
262.78464 -346.06793 907.92542
254.32455 87.584862 664.2489
30.119738 120.85043 983.80084
146.47217 -177.16299 906.95947
-71.362457 121.09418 665.75305
253.29724 -122.61627 918.18481
486.92371 -27.581301 1241.3179
508.59921 -33.00251 1105.8025
171.27924 -198.67517 887.32391
185.952 123.33743 545.36444
537.76135 115.79519 608.62988
539.38788 60.85236 793.08142
334.62958 128.80472 724.85712
241.96915 76.330856 420.92435
18.293633 -367.86319 997.11804
279.96683 -360.1264 935.89148
41.18771 89.956833 657.67676
503.93216 66.226936 781.55585
555.99841 101.43127 652.14117
250.57849 -115.73884 911.18774
180.00052 89.713295 676.24872
22.052103 70.528404 486.29401
171.44911 116.73922 659.25739
59.555264 118.71862 669.62158
308.71036 -370.96201 1022.5284
147.69014 -347.17035 864.08875
189.10567 -65.742348 759.61572
235.52159 85.959557 649.04443
18.302294 77.397202 537.55255
-18.750935 -379.72241 1042.2887
195.06932 76.064201 507.30704
75.59874 98.28817 437.34232
21.533556 -376.19269 1034.0206
274.01337 123.36015 539.14258
309.15033 107.88935 692.45685
61.901825 90.541878 661.31671
559.96069 -373.34531 1083.7734
168.32086 -225.57042 881.1582
554.55225 75.494598 650.17004
195.81773 -342.72751 880.22559
162.30467 89.071945 659.98193
560.20959 -445.13525 1135.881
497.85992 -31.68 1069.839
302.01251 121.81289 647.5871
476.28055 84.806259 627.45502
537.15363 120.51827 730.91736
499.63257 -42.503292 1021.035
48.491627 -283.56931 1072.5284
115.41729 126.39397 503.85776
7.0814362 -388.74774 1007.6364
498.77679 67.897934 776.72693
-45.834679 120.58205 655.37341
97.395844 -262.75595 895.21655
488.61938 68.818726 965.33154
-31.211754 88.189224 659.8407
332.12656 99.548187 666.46216
102.34589 129.03189 552.62372
148.85486 40.83054 372.96906
540.14337 72.757423 1062.2915
85.703987 143.80605 588.17902
318.15396 -381.89307 1027.8018
538.9259 70.787682 1117.226
85.153809 -258.52844 922.04559
519.41425 -34.372143 1088.7972
81.878265 27.385527 195.07736
196.12621 118.37494 661.60175
555.60065 91.601959 784.7475
226.44476 -211.58167 968.31183
180.36873 -187.55475 903.55249
54.509743 91.243034 688.46259
174.21681 -220.63504 884.25513
529.59106 121.61207 674.40015
498.33728 99.245232 1086.9714
274.33231 115.52354 659.1499
164.04495 125.24972 516.12756
92.415512 -277.57071 908.90802
207.72273 63.0247 412.81143
5.406467 131.60239 451.37933
67.287323 48.494286 244.47157
565.17462 -345.66895 810.33588
527.04938 70.75296 1021.3231
434.80334 -23.883194 955.26166
82.452469 125.12122 598.21106
297.10184 -351.72354 1051.3998
160.59117 125.45333 540.289
198.57285 114.26215 648.14948
546.7179 99.779602 665.29779
187.25076 126.90381 443.55341
29.414686 67.185577 552.72699
78.722816 62.357716 409.49078
197.21762 124.95084 583.83368
343.32312 84.31916 681.30548
71.670311 119.31363 660.47559
570.55975 129.39587 755.24268
173.5127 54.475574 420.48148
195.22331 122.11424 592.12634
97.739067 -208.60179 999.98792
56.180851 124.83949 558.24786
533.09918 84.834785 762.92969
288.90036 121.80772 603.4621
98.057388 -194.07339 976.24573
247.15378 92.330109 657.08051
490.98196 61.178043 1282.6051
138.2863 128.39235 416.6701
344.34201 122.46859 533.61176
485.16232 51.0186 1141.0299
507.26416 59.068485 1184.7062
222.30093 78.103149 511.12604
500.3934 97.872589 1074.2249
114.84832 -338.29416 871.38165
543.58722 121.17502 745.77521
245.58836 80.624367 685.58905
492.42615 61.843113 1278.8079
32.388432 -311.83868 1055.699
312.3226 -381.37454 1020.1785
519.34668 69.060562 1273.3384
451.9664 150.68161 660.56818
247.44 90.864143 653.81433
521.52081 126.28141 732.7829
481.35306 -51.459206 981.73822
285.46564 125.10715 541.74658
176.81903 51.947102 224.24117
37.118153 40.863655 1031.2761
503.29935 121.41679 657.85309
229.93817 73.269257 627.57623
451.80209 161.58293 707.32709
481.18713 -28.211424 1045.17
125.96023 124.41508 544.54767
94.036507 -285.96875 908.61078
557.66107 -432.02795 1158.2805
180.21722 124.14593 536.26147
567.61798 -256.95801 1218.1052
285.0946 -305.65042 1064.0797
229.27516 81.686905 692.49933
345.54495 125.04106 661.6687
249.55083 118.61722 672.41187
508.97238 111.36598 694.6344
88.265549 127.46024 495.56448
502.52832 68.476791 896.07813
245.68062 81.834221 683.14856
563.41364 96.615585 780.97528
145.15746 -118.1778 967.01813
490.35611 -24.670469 951.97095
224.81755 67.599602 523.70209
508.87308 -30.863312 1098.3815
141.97816 124.74067 571.94769
125.5028 102.5904 662.75751
371.34799 118.81034 676.36401
279.44681 -120.68051 898.901
280.18747 -382.39139 864.0954
-38.811314 131.30937 409.50403
208.06229 -100.86243 915.59705
481.58316 44.206436 1126.8278
103.11555 60.529861 697.80212
118.61885 45.912994 701.42889
101.50836 -50.250038 742.93445
117.98033 18.596081 714.21985
268.20547 17.327866 716.16998
253.62543 58.866379 698.72083
268.68808 44.565147 703.63617
223.71823 59.660431 697.99512
251.52371 -51.866882 746.02673
-111.83826 96.04821 1427.8496
267.25415 -37.495888 740.83014
116.86127 -36.172058 737.94226
269.19516 44.466396 704.49847
134.61752 66.713013 990.41956
161.51996 -50.965126 745.49951
118.65379 45.944023 701.32544
170.16954 27.067856 445.98453
267.48962 -37.561268 740.89099
251.75877 -37.211975 739.98578
251.49857 -51.959576 746.51709
147.69601 4.9362755 719.32019
252.5379 3.5491843 722.67407
117.11762 -22.82995 733.08936
131.97708 -36.143047 737.08752
118.84029 58.981926 696.97198
508.53613 93.52063 767.09253
116.67214 -48.767944 742.28564
557.39081 -384.56119 860.9494
77.566948 -193.54553 1021.789
179.7088 34.962444 442.90244
118.95379 58.525219 695.75812
264.93759 -23.749481 733.80035
-100.26632 92.040703 671.54852
276.57343 30.791029 713.6001
89.835289 -337.88086 891.32227
-108.34399 86.335777 661.13599
-111.86168 106.06035 671.96545
131.97307 -113.77088 979.5423
-109.02631 108.58739 676.0752
165.79552 -125.35115 964.9729
88.200218 -328.20544 887.26843
169.44722 -141.81577 960.01904
502.40491 -34.497906 938.67975
-8.0357666 -395.96042 959.6842
517.2699 84.290924 767.25366
77.091705 -336.20328 892.99402
501.97913 71.951149 774.98456
196.65707 -363.64255 843.55127
197.28438 -363.89368 844.80536
101.17877 -319.20477 882.54254
165.81203 -125.41078 964.89368
482.0722 -46.953625 1034.376
561.43854 81.781441 737.52948
498.13022 71.349129 767.00397
563.89014 82.041107 749.0965
558.6792 -325.96741 1055.0156
559.12604 -340.72482 767.78741
130.66216 -149.58943 963.448
43.368275 -329.11346 994.67316
268.14301 58.235302 700.37415
332.83661 -411.27228 951.28394
122.76682 -340.3172 877.5752
130.66583 -149.63863 962.98566
129.51065 81.441414 986.69006
527.58533 -45.069675 933.15137
-120.19476 110.24713 663.13788
-109.95554 98.584145 666.29077
151.05545 -256.2789 871.43756
76.565514 -335.87009 892.0639
498.69159 84.544617 765.87463
175.22449 56.203609 698.74896
330.59952 -419.54623 951.19391
106.11366 -45.298203 1038.8031
-105.02039 114.01343 665.45258
147.28761 -259.08844 877.98785
144.03926 55.26516 698.38959
119.30819 81.238747 985.06897
135.69089 -25.593481 734.43164
264.21854 27.860569 712.28973
-109.5862 97.540703 666.43573
113.27322 -25.503782 734.93939
117.82347 12.854716 1013.9935
263.25696 -26.522001 736.41809
203.17592 8.1612682 718.64307
188.1087 -39.745319 741.68939
110.80055 -63.377163 749.90466
179.63463 22.896759 424.23639
558.18451 -351.54004 783.52399
558.98779 -330.00742 1057.5616
557.97461 -327.34024 1054.0828
264.49203 34.175354 708.24371
205.21074 55.953552 699.4093
116.51125 -34.539097 1038.3834
187.2448 17.210554 346.76855
265.05209 55.396576 699.49316
495.741 -43.057171 1265.3073
179.955 9.8173103 319.4071
264.00504 6.7906756 720.185
499.08142 102.58798 767.28094
242.44525 55.19746 700.20691
-107.88318 102.93814 653.36682
492.3551 72.881668 766.03906
266.18347 -51.286671 744.80554
104.45684 -63.567829 1048.1155
485.04193 83.569908 765.46173
497.10941 -59.929699 966.16217
169.41772 -239.93088 879.79254
319.11688 -118.88577 900.63916
555.52588 -421.30273 1054.6249
136.05641 -371.66391 841.0141
263.37921 -48.475719 744.24335
98.012924 -372.3287 865.10931
157.55658 -138.30527 961.46106
-111.19326 103.86996 658.70581
159.4614 -118.71594 968.41943
189.9119 -362.70792 844.84033
529.28784 -54.415489 970.83722
511.11627 83.724754 769.85358
163.65404 -256.54282 870.40546
263.05783 -48.035404 744.41083
96.238678 -316.4545 883.44415
507.69351 74.815483 766.62646
97.690514 -371.57669 862.60565
186.3324 7.18854 307.80838
509.35031 112.97994 771.06274
164.21883 -256.75714 869.94562
-8.2535839 -372.36859 1045.1281
558.14734 -362.1225 891.09216
258.02228 -5.0136514 725.87268
162.57062 -255.70627 870.46674
107.5306 -319.46588 879.94055
-7.7561932 -372.08365 1044.4691
93.669174 -342.1488 890.04053
149.45148 -239.53241 888.78296
103.17521 -326.60742 877.9693
200.85504 -369.96738 846.00391
517.80469 103.01147 768.18695
557.28418 -443.33145 1101.8439
486.24124 78.306999 764.79315
146.05423 -242.18137 892.55737
83.930161 -180.74927 1005.8679
216.9967 -296.97107 885.98541
330.47165 -385.99112 1043.1383
82.823776 -343.86407 892.48962
561.73517 80.393318 789.37921
150.11958 -276.56235 861.77838
559.47437 -321.30151 1037.8342
114.86188 -307.00204 956.69318
530.68732 82.067604 766.90869
109.51569 -327.79315 877.47284
78.374588 -351.63809 894.67487
104.25652 -361.34396 864.3186
515.8725 76.031898 766.82458
518.9826 92.749863 768.08026
169.8979 -120.32989 960.79871
166.83287 -367.59683 843.02667
13.047809 -345.47903 1031.3309
500.01941 111.19053 766.98425
563.3064 -398.54495 1042.2356
183.66173 -355.28329 849.78772
229.7449 -268.61172 906.16687
183.69244 -354.89923 849.46558
86.643608 -305.75012 891.15454
95.435677 -328.42355 884.75964
517.11438 75.366608 767.08716
110.90934 -372.80063 851.06287
557.63086 -335.85321 1055.5608
201.58382 -356.7793 849.4032
220.14026 -336.23935 887.6004
197.6024 -302.8541 884.81232
168.668 -298.0491 875.71521
101.98513 -307.9534 882.67944
557.19281 -377.95276 861.95032
165.76469 -372.79309 841.2063
166.11214 -367.05975 843.73785
566.83185 -374.33005 893.41705
99.510941 -312.87659 882.88611
498.80936 111.91481 766.74524
142.2778 -213.3378 894.16962
156.37816 -131.05156 965.05243
118.94195 68.40107 695.03284
108.93664 -314.72369 879.31415
123.47533 -132.25682 979.77167
213.45428 -252.46791 900.05341
-113.37937 18.907848 1481.809
223.0864 -264.06848 902.20837
92.134331 -310.62912 886.44391
561.85217 -410.02295 1141.5929
110.22904 -371.45139 851.53546
472.97522 -55.735088 1029.7343
554.62659 -375.36893 1006.7962
510.0206 104.0031 768.52637
208.13661 -369.66428 849.06244
118.79253 -359.79904 854.86859
117.4528 -355.49713 858.81934
322.80649 -365.80447 1053.8839
556.03284 -347.30347 842.02423
118.81741 -360.21445 853.99072
95.512489 -329.06152 886.86377
116.2209 -305.93451 874.52167
141.09076 -135.42757 963.90161
94.915489 -310.34976 883.9939
150.94373 -144.06754 958.37048
155.97829 -112.63367 968.89398
570.90295 -431.46979 1117.0269
526.19275 112.43719 768.38525
151.34322 -144.16637 958.18658
235.73322 -65.039421 745.29852
489.37112 84.776657 765.92114
116.65611 -375.61615 849.60809
72.062492 -344.5394 903.03687
175.44983 -111.36951 960.1358
520.40692 93.737549 762.42212
-105.8408 86.953835 689.37134
555.23468 -442.17691 1085.7098
172.20178 -372.2457 842.68829
558.42023 -388.84451 879.15387
480.4335 18.76865 1270.6436
454.57379 93.771248 671.25885
142.84297 -141.64609 961.53107
118.75356 -359.16519 854.02881
560.94574 -348.80612 1072.6627
89.032074 -320.65686 887.56183
558.60413 -341.94424 864.37762
318.89532 -356.0144 1064.0096
182.57755 -144.72298 957.42554
162.38148 -145.13989 958.65857
100.2569 -324.27994 882.54883
506.50027 112.46741 776.47247
71.616501 -313.05896 909.1618
513.8501 99.216057 767.63196
172.63611 -114.34689 962.31744
161.52266 -350.08844 850.68024
161.82243 -350.27264 852.40021
560.82007 -312.34671 1062.2614
309.26022 -345.13837 1081.0752
89.370148 -320.31 886.87903
146.53833 -113.08403 974.37488
555.39252 -363.68365 870.74878
162.27071 -145.1595 958.80823
557.15814 -4.739336 1036.3345
74.107605 -189.65596 1031.2069
523.24884 -56.176754 990.61829
523.89478 19.885767 984.66956
341.59924 -117.03424 920.05371
-114.81113 110.23313 1442.6362
556.30212 -371.39453 889.17096
310.91595 -350.71677 1071.7528
67.421555 -305.58887 919.32654
122.90302 -362.79007 852.47882
490.2626 85.976227 766.20776
119.03384 -148.4341 976.52979
80.754013 -178.01669 1020.6002
129.80101 -143.64845 971.83502
116.65791 -348.68509 864.9353
120.77326 -323.19122 879.24298
498.99844 75.405991 766.6817
246.71341 -323.58044 906.47388
-13.428644 -400.66327 1007.9139
482.15897 -59.136459 1098.3007
239.84087 -316.87283 901.43402
557.6474 -375.89667 1037.5421
188.56502 -263.5416 883.4447
155.22408 -271.10849 863.23145
-71.490494 82.918457 681.66644
271.86829 76.863342 687.23535
36.123245 -388.61887 902.31989
100.62912 -342.79669 883.63336
490.26569 -48.424202 1032.649
87.252106 -362.59299 880.59143
149.08873 -128.56801 965.5423
103.66082 -344.01044 883.10034
495.10687 120.52831 761.86804
69.495956 -383.4628 907.72455
161.60565 -344.97144 856.20154
555.48187 -410.4455 1042.5504
405.66016 79.090187 692.59833
142.52011 -313.86496 873.22064
-1.6167587 -357.95886 1072.7667
-97.304817 106.77197 674.07367
340.42752 -114.75468 915.75775
121.60704 -371.18622 848.27686
130.65291 -118.88854 978.75739
326.24557 -375.80884 1046.8293
137.15538 -124.08376 974.41724
154.36638 -338.28619 879.38666
105.08468 -346.92581 885.42554
45.351318 -270.51599 1089.6715
161.06363 -270.64429 845.46527
-110.44154 85.59668 699.04871
96.086319 -343.62561 891.43896
497.89084 117.71486 767.17212
534.49341 103.5801 767.15417
499.96136 76.196983 766.01843
145.77892 -332.28836 876.45825
106.53188 -312.56055 880.08496
557.53979 -358.97528 872.22314
236.24727 -367.71381 881.7063
104.14938 -347.6611 882.95313
557.59064 -360.81653 855.5202
232.74149 -311.9639 899.44598
552.28827 -368.07904 1017.9378
557.54633 -442.07593 1075.6244
130.94998 -131.10539 974.87592
86.177383 -354.74451 881.53711
-95.60791 106.72272 673.47729
96.085434 -357.89462 868.23804
109.83414 -144.56001 989.09454
500.6246 116.07841 767.27582
195.40758 -355.21152 849.05084
110.17227 -309.25851 885.88953
155.17589 -120.00742 967.50879
490.40091 -62.529121 1128.6906
149.15582 73.724884 694.31439
165.11052 -271.21951 857.05255
558.2135 -370.599 843.29224
3.3090498 -363.64694 1039.579
106.06043 -310.81219 881.5246
228.85518 -312.01471 895.27808
147.86542 -157.71011 955.65649
276.56516 -300.14145 1084.7606
323.26056 -374.58533 1046.9685
552.18066 -367.06769 1012.2347
-109.82756 86.612267 674.75269
166.51501 -133.50531 962.99164
122.70052 -125.18124 985.71149
502.52023 98.514153 767.17792
165.00641 -133.8132 958.20679
209.13914 -236.01468 905.33807
136.27167 -118.77261 979.07922
157.35228 -125.12292 967.13275
435.66949 84.126991 675.01251
75.562477 -326.7562 897.04706
78.351845 -297.66107 894.50562
-96.903282 13.144828 1477.3474
515.03497 110.77444 769.52319
36.665382 -309.06409 1054.3018
557.53088 -341.6394 777.88495
516.49176 111.00825 769.83911
41.537476 -303.31323 1032.1229
151.9057 -117.38258 968.97906
194.46863 -236.54337 900.96912
166.03368 -270.62082 853.48022
557.48584 -385.66577 1140.6606
428.99445 79.815529 698.87427
64.34433 -321.56705 922.27087
77.801147 -298.86142 900.92548
220.62984 -243.72643 909.19073
544.63635 -419.36212 1063.5197
198.71881 -335.77985 884.72406
109.48372 -131.2234 996.68951
557.6994 -351.62445 872.1908
213.4561 -238.64465 904.84186
91.930611 -182.52463 1007.1621
77.416122 -305.68942 897.117
400.00717 78.736778 692.30438
218.32289 -322.74127 915.15582
182.08632 -152.4451 958.64496
278.17224 -315.75153 1022.4314
202.38553 -336.50024 884.92584
84.562263 -334.94986 889.85248
359.89386 -114.7863 940.8811
54.626156 -372.44324 926.04919
173.67149 -362.6926 843.21606
106.61249 -356.58328 864.32715
172.54837 -357.29254 849.73236
527.65338 101.69941 768.20776
215.8259 -305.97369 889.82037
126.47298 -128.42154 984.66803
229.17551 -247.8185 916.29004
137.20844 -119.63351 989.05261
559.47119 -383.25275 855.59369
102.67525 -316.81625 882.48462
177.15981 -250.20888 866.1424
491.51587 25.606958 1257.1005
112.10794 -311.47116 878.89429
209.71774 -249.19536 901.66968
106.2253 -376.72971 852.47998
186.25546 -124.55238 956.03247
194.59038 -234.98666 900.80157
135.89325 -137.56215 962.55334
203.58714 -325.83023 887.95966
141.7948 -112.3372 977.9552
145.87541 -321.55713 873.51001
491.74167 -36.488945 1180.0748
283.85471 17.544943 718.09302
560.25372 -440.58472 1072.5693
147.80008 -303.41919 870.1488
200.06488 -227.27431 899.57507
171.76845 -352.59424 850.98029
147.41962 -118.16273 968.01843
224.41064 -304.19724 892.77203
481.44766 41.942898 1055.1273
290.99512 -321.85114 1068.4008
131.584 -308.11111 881.22211
197.12862 -245.92986 895.09875
47.179382 -267.36975 1093.7603
183.37479 -298.94846 886.48077
183.43048 -112.96391 951.034
150.79521 -338.42734 858.65875
312.54745 -107.10275 896.1048
42.430298 -273.61322 1092.9266
125.66123 -120.98024 982.29895
557.9707 -353.05106 865.93658
315.06229 -388.83411 1057.5593
160.10823 -373.54956 841.41858
293.69223 -332.659 1061.7313
530.88361 99.318573 766.69641
127.77617 -358.35263 850.20569
232.74088 -265.96725 912.71857
76.659111 -216.51237 1028.7722
-17.326637 -379.11505 1013.9468
148.31639 -358.44867 846.27954
185.82944 -124.02191 955.60187
197.5675 -247.67009 895.00439
149.71992 -358.35458 846.11804
155.45274 -342.86365 865.71716
43.387901 -259.24164 1089.1217
120.45978 -164.08543 971.0058
179.75623 -270.69904 848.33386
174.58763 -361.68112 847.47772
216.95892 -367.78366 856.56464
523.30756 106.6338 768.1676
219.23555 -105.99606 919.07819
-40.789261 97.624435 659.1203
149.70946 -298.37827 870.52301
215.20473 -263.58133 897.53314
191.63235 -114.87035 953.33527
234.80663 47.22517 693.61859
112.3166 -321.83331 880.82855
214.26355 -239.55775 897.94281
214.79045 -229.71538 915.60016
94.036369 -366.36099 866.75781
102.18554 -366.94492 863.09552
-108.07471 127.19013 660.64502
557.61517 -396.18188 889.90991
186.63153 -269.51447 879.85583
236.18994 -306.92331 900.36755
226.28108 -323.39078 888.55688
110.53521 -174.76779 1019.3687
-107.2683 42.858021 1428.3671
127.09245 -373.45554 844.71924
176.24127 -352.64032 849.32391
284.14761 24.002045 714.69757
245.69547 -329.9765 904.72388
75.159805 -386.43863 877.1618
538.6604 108.69675 769.74158
172.97444 -355.92337 847.94269
96.334877 -305.69119 884.67651
121.45038 -312.16785 873.93585
-9.7640114 -363.05844 1068.5823
492.91617 -8.7734795 1182.7941
90.234993 -356.76215 879.06268
137.2193 -313.56149 874.54266
194.77908 -307.93076 881.21228
555.7674 -383.57379 1038.7791
215.97351 -249.65649 900.26782
135.39011 -366.82736 842.23718
111.6172 -322.22748 881.62073
61.028896 -305.82083 946.92017
148.9678 -340.26904 862.44061
283.62677 24.510983 713.09973
561.44128 -325.79129 1079.1482
195.89729 -336.22693 889.02362
530.91522 105.4034 768.26697
101.3135 121.58623 664.10736
483.99347 69.903976 766.63904
211.15811 -350.70728 863.5423
-97.948143 32.742535 1424.2637
133.43599 -235.52803 895.79218
169.3533 -133.87935 966.3736
208.43034 -320.92868 888.12714
208.03568 -314.59464 886.51941
203.22473 -150.61055 958.98743
484.01169 -63.090698 952.28186
101.27113 -366.91446 866.00159
132.57552 -230.95952 895.43634
560.23718 -269.00485 1217.8365
108.60921 -304.24261 883.03064
186.71481 -234.11981 896.8764
-109.1582 102.39661 676.26862
492.63907 104.75191 766.24127
154.87231 -276.73813 851.15765
215.12726 -264.3924 899.93622
291.26898 -332.33719 1060.6151
195.79568 -136.26967 954.70532
157.82414 -321.61441 866.41473
161.48157 -320.46591 870.02521
126.81384 -344.54025 864.57581
235.07176 -334.37381 901.43982
24.306993 -394.77057 904.07416
62.093445 -163.92151 1058.7368
138.30028 -246.78384 891.77155
40.062382 -294.716 1080.0717
219.09203 -323.38644 891.28491
81.394524 -382.83105 875.8606
-105.67324 127.03489 654.22424
111.46404 -345.1449 865.53516
137.01517 -109.48833 979.16125
554.84277 -339.32816 878.09454
221.17342 -317.42419 888.2793
488.79468 57.683578 1054.9332
195.24617 -150.18291 950.37738
150.41992 -359.22397 848.59528
148.10504 -339.40622 876.27441
401.75461 113.47427 673.70447
221.04002 -303.84357 890.41571
222.96234 -230.01616 920.12671
132.00616 -137.95514 976.00781
-93.903275 58.328247 1434.4036
-7.3954659 -389.16046 1030.6415
242.86617 -311.46561 900.45905
215.80914 -235.11806 909.28687
275.74411 -104.42924 883.02679
-111.61082 48.127068 1429.2444
145.35483 -299.40659 869.90662
488.62213 56.232254 1049.069
558.85541 -347.18625 811.25958
488.90924 56.730782 1051.5856
204.79002 -150.02966 958.51831
178.45667 -143.1256 957.3999
312.33881 -359.46835 1065.5682
146.00212 -328.76736 879.02551
196.29707 -133.98367 956.31213
552.57672 -349.57437 1024.6641
325.84232 -402.74191 941.50439
107.77312 -150.28357 988.46039
314.93323 -348.45654 1074.8766
236.02692 -280.87622 904.99286
280.66827 17.215391 713.47375
485.19788 -16.729818 952.3598
150.89803 -108.34769 972.04138
513.12811 111.19054 767.28271
146.25436 -133.5005 963.68567
-40.496014 123.76355 662.3894
557.41437 -343.17996 871.32397
178.26559 -339.16119 861.74927
557.25946 -367.19849 865.4151
180.68703 -346.76587 855.36798
89.91687 -294.72565 894.82678
221.23425 -304.3728 891.87048
-43.773476 97.416382 663.14008
252.98616 -376.35538 885.49152
242.72417 -338.27979 903.88507
184.97198 -138.64624 960.32898
238.02611 -328.89124 903.41583
117.04569 -44.312489 733.58813
529.41718 109.18982 768.79779
143.06236 -117.12985 974.40814
122.03791 -316.73459 875.9751
89.761215 -293.55588 890.23004
88.686958 -154.1456 1020.3884
114.51504 -151.88902 980.45013
-11.506254 -380.82373 1040.5822
116.39323 102.93099 664.51434
110.91736 -343.51556 862.25427
135.81729 -131.90526 975.23297
140.00418 -117.44965 981.54913
220.62489 -240.63293 917.58582
116.43767 103.48476 666.93683
491.69205 78.150566 765.60681
141.26497 -329.26187 876.90729
138.7861 -244.21669 888.00623
545.9281 90.220711 657.47272
120.51887 -307.13788 882.77203
548.94061 -399.34186 1066.4478
121.22774 -334.55994 880.71503
70.342499 -184.01476 1031.2838
137.97983 -152.33539 959.46851
494.15656 -45.569347 1236.5057
226.84953 -236.51888 919.10126
-41.483921 121.85703 664.17053
188.20332 -132.43076 955.45831
397.68381 83.473366 673.27118
558.69617 -379.91373 885.38635
177.12877 -142.42705 958.11224
214.05246 -369.44885 853.0506
537.40027 98.82515 774.84711
549.31165 -380.30045 895.39185
492.66852 19.718506 985.60278
547.36737 -348.50806 1024.8779
552.80817 -351.20676 1030.5786
122.50798 121.11562 658.72626
171.56702 -107.61094 960.7193
214.26036 -267.55591 898.66064
248.2925 -329.42087 905.12585
561.42261 -362.42371 825.0639
119.42544 123.57785 654.90674
528.85889 114.64269 767.41919
561.16986 -327.53613 1035.3424
197.43211 -124.35934 951.99103
179.76508 -127.70943 957.41443
105.76152 -134.89819 1004.1536
206.52135 -305.5361 884.92401
179.92606 -250.80751 877.15601
150.95923 -139.64987 960.88232
245.97404 -336.52826 906.34662
210.11978 -240.58456 901.13263
507.78741 53.69268 1090.616
81.810593 -381.71198 887.03552
210.40756 -308.80203 885.14026
571.05133 99.03685 696.04993
150.52652 -107.99833 971.20837
-104.95338 118.72152 659.16156
213.25362 -259.5141 899.05566
-12.029584 112.9566 661.09833
172.58775 -342.35205 862.6333
135.44833 -312.48972 876.19702
528.90497 113.50855 763.396
149.47704 -314.30005 871.41669
206.40096 -304.6225 882.21411
166.77452 -353.50784 851.70935
-12.937428 113.65302 662.93829
-106.13161 89.895706 1424.8638
91.317902 -266.08041 907.60651
146.84621 -349.25058 865.69513
-37.980412 102.58078 660.33282
21.922857 -341.45572 1047.7477
554.63837 -377.7464 895.1745
520.75598 124.25211 771.05951
192.33084 -308.94003 878.78198
561.04901 -356.31192 1024.3197
179.05109 15.252618 144.10199
220.08333 -178.60989 975.50122
149.71628 66.704063 377.50433
179.73669 15.389223 145.37802
-42.478298 85.349159 663.08081
440.30078 116.26745 674.93494
179.36298 -266.005 861.96283
192.95093 -119.87493 961.57971
128.82538 -304.70239 880.49689
-48.346069 112.31327 662.38489
92.942917 113.13172 663.59515
131.94922 -361.51843 849.66718
472.15732 70.543961 750.86646
552.47559 -369.6051 1045.2368
162.17764 -337.72787 859.70667
525.6037 100.83053 684.68304
156.00974 -289.04398 867.36359
181.54266 -267.63654 877.74689
495.07675 -45.347885 944.74603
178.24397 13.242042 118.42535
203.56502 -232.34317 901.62079
98.112602 -153.13383 1020.4008
554.47626 -424.17465 1070.2101
225.68585 -179.55861 975.58618
-33.124496 111.66643 660.76764
557.15759 -385.65259 1064.7183
553.66205 -397.00034 1076.2494
149.73349 66.496948 377.03064
338.01199 -128.66049 935.04248
-86.153587 109.56659 674.98193
201.12527 -298.46542 884.13116
93.022293 113.12431 663.30853
195.85336 122.1548 664.98938
156.50975 -323.56836 870.57269
-19.576811 -406.46277 977.48364
-42.96888 85.773125 661.93829
3.6974413 -369.57434 1016.3051
556.3324 -379.4873 1137.3518
475.7066 70.651939 755.96008
107.75645 -365.18533 861.48938
123.70684 -154.51517 966.59467
149.16919 -233.26274 882.78619
175.54315 -137.93488 957.54675
46.344727 -311.85938 1007.6168
260.30063 -106.60163 895.51025
-7.7176261 -388.75742 1039.3524
35.158092 -371.15369 938.72028
109.4986 -323.65656 879.97986
154.98843 -149.49515 950.41943
538.55872 -39.369747 936.34155
316.75156 -366.88123 1028.9675
542.65778 11.053675 986.81805
-35.582546 88.644379 661.87708
132.26961 122.20388 666.91138
83.520203 -169.87396 1017.1594
-16.033998 -405.42322 960.58838
110.79417 114.55635 665.24207
167.22789 -359.86365 848.32458
186.06747 -328.24307 877.57904
493.86298 -44.434238 1173.4893
133.82095 120.84585 660.01837
182.67656 -344.17072 863.83734
139.36798 104.68773 669.80884
-110.82352 88.163925 660.34406
118.45797 -324.664 871.992
-66.113396 111.66773 659.1059
-56.804417 104.12041 656.88422
94.180649 -291.56042 887.30597
204.14526 -375.42163 849.78796
-68.859154 85.294724 681.8197
163.66617 -106.32938 962.46838
351.98318 -128.02002 945.35217
150.62717 -233.50337 882.09302
485.02094 32.549007 1263.7944
84.023956 -248.73816 925.58344
166.80176 -111.83291 965.75604
103.25119 -337.49939 880.17426
227.21288 -368.2995 863.72742
148.62149 -354.56903 848.38599
86.989494 -213.62529 991.05841
188.09322 -144.36174 957.2243
138.60773 -276.41269 884.83069
173.66753 -274.25415 847.53235
368.95181 -111.60056 968.05945
480.55368 51.525494 1265.8271
-18.490788 -404.7699 973.85486
565.72131 -420.38547 1057.0486
441.03183 117.74508 675.04718
401.26147 117.78439 670.85394
129.42992 -312.29257 880.66547
197.69975 -324.54013 890.08765
170.96445 -267.5831 854.89386
155.68217 -195.72485 888.69183
68.216408 111.92078 661.48462
210.08586 -303.17661 878.77612
-46.921574 112.4676 666.35901
126.88042 -309.48297 873.7597
199.55327 123.17003 658.81812
189.09546 -358.46689 847.24139
223.39182 -257.32126 898.85175
-2.0718906 -393.32242 1020.7444
-57.159435 78.717117 631.88519
-72.467461 86.07795 682.29224
156.56876 -195.49234 890.15924
177.08371 -132.43277 963.21399
541.22717 137.41623 757.28088
293.91022 -108.32538 887.70325
105.73198 -275.42279 889.8631
193.55078 -330.59375 888.18707
548.80341 90.590874 620.92474
176.7644 -362.62177 842.3269
161.81441 -108.17711 966.89801
559.05933 -369.59741 852.51099
439.87332 123.28542 671.87921
61.103668 102.97126 660.88489
182.2542 -350.83173 852.71436
200.55275 -347.28171 865.75476
228.38669 -323.13931 894.81854
561.03119 -378.31165 1001.297
430.39413 119.18548 668.16376
368.24594 83.809906 671.97235
198.97441 -241.09163 896.27545
438.79404 126.64361 674.59473
252.25983 -342.78253 921.33331
-18.816334 -399.46567 956.10974
224.91322 -308.48608 891.69476
482.79214 35.10429 1066.9807
173.03468 -208.60278 886.15155
223.63458 -245.35939 910.96478
131.95305 110.13658 657.74481
522.3551 104.19073 766.62445
124.3784 100.50317 607.0354
145.7504 -124.56855 969.34204
94.879936 -268.94891 896.0249
167.14366 -114.82929 963.70532
222.47713 -357.3891 868.84204
284.92236 -100.63436 879.94794
141.12193 -368.13123 839.2959
-74.320946 85.348999 682.23798
227.93501 -340.12683 889.41382
107.7645 -335.1619 878.04694
291.0018 103.81202 577.45697
-23.014332 111.74332 667.71436
562.547 -225.19872 1048.3932
148.44681 -317.5704 871.28638
236.1315 -345.14664 895.2168
331.46295 -370.03571 1043.9371
561.10358 -341.80405 853.18695
184.74979 -338.85153 880.84814
539.72388 21.720072 987.23932
558.58032 -428.44662 1116.2668
354.41141 82.621201 671.61896
490.70026 49.990822 1261.2457
99.489334 122.46069 646.66913
481.02402 52.987278 1050.2965
178.09164 -231.2135 887.25244
259.18402 -358.42813 917.25647
-42.642967 121.41466 661.59198
353.06067 84.079102 671.81763
497.87592 -21.68084 1192.5024
283.31006 -319.51837 1046.1456
210.8839 -320.08545 885.255
352.83493 83.77356 670.742
187.90587 -311.71536 874.39758
-10.771801 125.23833 642.40686
323.60614 -409.96695 946.64276
-73.48452 99.492485 671.565
96.194283 -296.68146 891.16803
193.80833 108.93456 664.76318
87.074654 -368.12506 869.37048
559.61737 76.213074 682.80518
567.72186 69.890434 777.40784
67.332153 113.62714 664.74158
556.37543 -378.00131 1149.0942
193.642 91.888069 671.15857
-21.376556 122.0626 663.62964
175.73163 -126.82377 958.94604
114.7972 -296.94714 885.07294
216.73419 -242.12645 908.98004
183.17561 118.90207 704.14752
193.49559 -340.53424 884.58588
204.00246 -243.98813 898.2298
131.65337 -64.965721 746.26917
205.29205 -342.66061 884.30988
254.01318 110.47596 665.02515
406.81598 83.04641 670.63293
227.42601 -252.25468 909.27509
177.10683 -131.216 962.24176
113.97819 -317.54462 874.91479
61.384922 102.59998 657.02124
155.43604 -354.87473 842.36688
392.33002 108.64465 667.35693
212.65813 -359.81158 853.18988
351.96494 99.703026 660.87909
103.26039 104.42854 665.23547
161.4323 81.312721 443.64099
87.989784 -176.30109 1009.7591
200.8078 -241.30194 899.00861
555.90192 -398.34915 1013.0272
167.04355 -114.3698 962.92767
156.90739 -247.15163 873.99811
95.614311 -297.09927 888.30804
8.8670712 113.4943 659.72644
231.87486 -242.88347 925.86835
-27.017818 107.04613 663.44244
204.14258 109.45541 668.58942
101.535 -129.78961 1005.0884
409.01086 111.13493 672.39557
186.45625 -214.44547 900.60272
203.31909 -317.52371 888.2771
166.27876 -273.05768 842.59723
-72.304665 98.706291 668.49109
345.01782 108.71776 671.03583
202.85535 -313.1727 887.84174
484.97983 -3.5699589 1075.8401
204.25624 109.42366 667.04169
266.4487 -147.21895 993.24377
138.02026 -350.66458 866.92914
485.72809 3.3363802 1169.4749
284.95386 90.380234 669.38336
325.55881 -392.24176 934.52185
132.67165 -327.48672 879.84326
114.42893 -192.74875 996.71381
163.34294 -355.40073 846.3501
99.603119 -260.21353 902.29645
173.44359 -155.67699 961.87109
132.38354 -318.29758 879.5274
-89.114182 122.43684 650.76398
-103.98605 91.569839 722.09845
488.05789 29.566759 1260.8234
196.16867 95.935982 517.74036
265.84625 119.49965 670.2865
414.14908 110.34755 709.47595
534.22949 108.95015 765.84918
284.03629 -328.2952 1063.1407
142.61998 -317.33044 875.8927
544.57135 27.076221 992.41492
505.43335 -25.423082 965.6701
275.14032 111.02313 670.14532
485.24902 127.95052 707.19385
464.9841 52.164967 1261.1921
149.7804 -372.43994 840.87842
216.64246 -336.93842 869.41339
100.01318 -257.91522 895.47168
134.37856 -341.83713 876.07977
324.91064 -348.1601 1059.5614
159.67567 90.672386 657.84357
42.313026 -364.68451 937.01398
408.46689 109.54423 671.60413
276.7796 124.66985 663.10962
162.0668 44.107147 253.12175
180.20187 -317.39587 862.07489
100.72807 -156.54813 999.05194
87.478531 -192.68437 1016.2682
54.89629 -378.23322 916.21179
248.82393 -315.03729 909.08301
313.59427 -399.19189 929.91217
204.93147 -119.53587 956.4599
215.88741 63.488861 422.47153
315.51456 102.35169 662.90552
168.41777 -287.608 842.53558
176.3725 -188.73508 903.18774
252.77631 -357.04047 917.36462
-96.219444 80.268867 683.31036
65.736694 -369.51553 920.09326
531.79352 120.64661 771.28845
439.39221 115.08236 675.93195
-112.00317 91.04863 662.11487
182.30632 -247.68016 882.45551
314.6398 -400.08249 932.30219
156.01476 -102.0742 963.3963
332.43985 -130.02895 934.76831
167.4373 -216.27934 885.36432
332.67941 -115.07362 917.28522
148.75645 -119.112 972.10175
253.18852 89.917488 668.06616
499.48007 -69.322083 1010.2778
142.59265 -146.46384 955.89899
253.56326 -104.40042 886.07233
28.809263 -312.70239 1056.0374
-52.466011 98.636192 666.01373
54.431541 -249.80524 1092.2452
171.43045 -298.56183 844.93042
201.91399 -295.93796 884.24103
-30.507215 127.94774 655.40747
129.87572 -318.97015 885.77325
235.18118 -272.23172 912.74921
136.51064 -323.43686 881.68127
205.24158 -140.32709 955.90582
412.43597 111.19949 670.80737
99.787895 -253.96907 919.01855
556.12231 -409.24442 1120.283
213.30948 -122.24328 950.69513
202.70712 94.274445 509.94852
302.2901 -394.16162 898.47021
-100.08332 123.27966 657.51459
494.81039 -48.689545 1184.7391
27.00313 -384.61765 916.23041
514.47186 4.6982059 989.4671
325.95523 108.36714 668.99133
253.06516 90.213814 666.65631
-102.97896 80.949989 702.40643
-75.675102 79.117531 680.15881
78.736748 -312.46402 897.48383
153.06108 -248.45633 865.81714
87.650688 -283.17773 891.96985
127.89815 93.105743 667.79962
28.967495 -383.27133 912.20044
-90.202858 103.15867 665.24847
188.31148 -244.77174 883.05627
162.11833 -323.7363 857.41339
105.61905 97.427124 667.13837
102.3279 -280.29181 878.67371
129.54408 -327.12103 876.1311
-38.47234 121.56557 663.72247
227.23727 -183.98615 975.78583
250.72234 -343.8511 915.61981
75.136131 -382.67166 879.84589
165.45474 -214.60484 885.08929
218.61578 -271.7081 898.99188
98.242096 -156.45335 987.7334
238.33456 90.585213 606.80426
134.7106 95.614677 665.71228
231.54022 -305.41272 908.05261
504.62009 -21.893389 968.06885
373.77911 107.69151 656.34039
232.29543 32.095921 707.5304
181.54448 -155.65059 957.54205
329.93085 85.741776 496.5163
274.6199 87.26741 671.85321
212.97482 -315.42709 889.82758
136.88673 119.77568 665.30005
141.83968 125.37908 519.1676
107.94335 93.716133 665.05457
539.50189 -40.312798 918.19946
144.40251 95.640778 668.62573
141.12332 -342.65817 877.85626
493.77405 -11.574982 1141.4142
95.140327 -166.85045 1005.7352
247.34163 -99.011421 883.47516
218.69536 -361.00082 860.54498
-45.722324 124.72381 645.104
206.93069 -297.51364 889.90881
107.34199 110.84892 669.47028
215.72383 93.255692 507.27197
239.86339 -264.11224 924.98907
207.88409 -310.6041 889.659
410.36414 107.01506 682.38953
148.28976 94.715744 675.02264
291.19916 -117.10474 895.90692
96.676453 -299.18292 889.15369
146.66205 -354.33041 852.67102
222.90486 90.158989 590.01166
168.82886 -244.53317 867.12634
29.792469 -318.37378 1054.3291
223.35452 -356.91632 865.73755
210.07515 -327.95447 885.91345
414.82941 90.114975 673.9303
174.32742 -244.96231 869.21851
-82.205017 47.712368 1435.7751
171.8163 -154.55692 954.48914
245.19182 98.757614 686.40088
390.20761 116.38085 697.6676
246.73277 -342.56528 913.93079
160.49728 -332.68808 862.91608
560.61591 -375.91531 995.91376
332.95581 100.58129 656.83893
5.1231375 87.595856 598.81714
556.06897 -342.96368 821.88483
97.13282 -264.26517 902.1922
489.57108 7.2582393 1268.2855
500.18106 -39.339874 1164.2634
366.10867 81.802696 691.49646
481.97672 -42.491413 1144.7649
95.18338 -343.8241 881.06708
16.8696 106.03797 660.59302
381.61557 95.315826 673.28412
210.83138 -331.526 891.20349
156.72409 -269.60339 874.94934
563.42871 -347.60684 804.94934
499.75476 -12.847999 1156.8195
279.26709 44.13945 704.41882
-77.000443 73.468231 1424.7954
568.3689 51.263973 819.73218
5.1239147 86.932098 599.2912
149.39792 -199.46346 892.48456
194.1064 82.549263 680.79083
488.02576 37.639664 1225.7864
367.04068 121.60428 672.96423
103.42135 -160.83313 991.06067
-4.5360866 108.16148 648.99341
335.28357 -113.6431 919.12445
247.23671 -300.14441 884.6604
525.55084 118.34991 746.70947
244.07912 97.29882 680.56506
238.3835 93.006371 666.22229
-48.770115 120.41446 621.82654
202.70186 -322.68118 887.51196
113.43221 120.20015 662.23694
483.84677 52.865738 1221.9503
290.18225 -374.94672 919.17419
561.71106 -364.26382 1014.2986
450.996 123.04969 667.59412
-1.8701718 120.84641 661.09491
-0.75681108 120.74632 657.65399
296.35922 -387.88483 891.18622
495.01291 -41.627266 1162.1796
148.91708 95.511856 676.96283
318.74777 -340.98398 1090.2531
-11.209972 -363.34122 1053.8684
-88.088051 120.65841 656.39191
177.67236 21.108553 175.91972
496.94516 -5.979321 1042.9388
462.24237 84.352249 1187.384
155.90346 -215.17813 904.66467
560.56293 -361.34457 1012.7826
-43.412029 107.57242 673.21631
310.51892 104.57066 681.77527
267.36771 133.09778 714.71216
80.902496 -267.33145 915.75946
345.68683 93.311661 658.13397
522.21393 56.933777 1070.5559
521.15112 -6.0664492 975.58154
367.76215 121.91148 677.04047
220.67447 110.46532 662.05811
151.51047 -355.56863 854.6792
509.43347 22.711926 984.23492
68.156296 -203.76599 1038.271
557.40173 -331.67191 842.67126
561.14288 -358.2641 1016.1266
217.49037 84.751564 564.22705
86.443459 51.025417 344.51233
403.37964 106.13772 670.02899
103.90608 87.955948 664.40802
167.01465 39.631111 263.93387
-9.058115 97.61673 660.11804
96.491051 -279.32697 879.94299
-106.20198 93.566544 721.23413
102.32458 -156.17137 1000.5217
196.21274 -318.12378 881.35175
402.44763 120.89265 674.03223
137.28947 38.275806 274.06238
169.48857 -246.99074 869.55957
102.63559 -267.86996 894.45636
230.2664 -333.88211 898.51361
310.62509 -397.79248 939.23114
172.95547 -343.2316 852.50195
278.96677 43.133457 708.97961
173.27898 17.099339 133.55801
-82.304977 98.047844 664.14685
185.994 -348.75226 860.74976
142.71114 -354.04733 849.31262
240.66902 123.0719 653.9729
576.8421 -222.70062 1057.3342
26.149458 -309.81952 1057.967
199.61597 -143.32141 951.95874
319.90689 120.50217 739.42267
292.02789 -358.30539 1106.927
97.021713 -157.39372 989.6109
10.994075 -387.44888 904.3374
115.16019 101.92576 570.8479
290.62198 94.550301 670.38599
244.14682 116.81738 636.30316
221.78871 69.165245 440.75522
154.8905 54.820713 300.81479
499.91794 26.528917 975.31781
160.50404 32.439266 220.28548
185.42972 119.78033 651.01971
97.142212 89.322357 666.12701
253.57233 78.005302 687.34802
566.6712 76.613106 675.20642
-80.333168 97.109612 660.02875
30.431856 105.6352 558.2998
576.70508 -216.66165 1051.9911
154.34158 -205.94101 889.81812
107.66689 -340.80322 876.08533
316.77301 -150.4348 977.0462
196.86633 -373.66815 841.21088
125.50192 -346.41214 842.38898
494.34006 -8.0405569 1054.2275
28.185783 -380.07199 920.45898
550.95764 104.11562 758.04767
234.53688 -356.09576 886.56769
124.89935 -352.72147 858.01434
-32.810425 124.19286 648.75403
184.28403 122.80818 659.33124
20.541039 109.8249 666.41956
229.3871 45.432434 322.62106
108.54253 87.769958 665.67188
-5.7132831 110.69701 666.48901
44.301022 -286.53888 1065.7368
-34.699646 118.50856 662.40674
553.97473 -370.26157 902.50183
304.40186 87.576149 503.58353
-67.681961 82.418808 709.76807
180.26077 20.577236 164.95563
99.024231 -348.41415 866.46527
567.40063 133.5927 732.41254
49.598881 81.951744 438.65552
164.05119 74.667931 689.61383
184.45819 20.324585 134.75887
558.15753 -340.82303 824.36591
-99.24353 127.80794 663.71686
3.51335 -389.02783 1018.5529
304.77682 82.501198 668.23749
